ply
format ascii 1.0
element vertex 760
property double x
property double y
property double z
property uchar red
property uchar green
property uchar blue
end_header
0.338891321532263 -1.523318627106202 0.492227124297933 61 36 35
0.338891321532263 -1.523318627106202 0.503674266723466 56 26 36
0.338891321532263 -1.523318627106202 0.515121409148999 56 26 21
0.338891321532263 -1.523318627106202 0.526568551574533 54 31 36
0.338891321532263 -1.523318627106202 0.538015694000066 59 57 36
0.338891321532263 -1.523318627106202 0.835641397063932 42 22 9
0.338891321532263 -1.523318627106202 0.847088539489466 41 18 2
0.338891321532263 -1.523318627106202 0.858535681914999 41 16 8
0.338891321532263 -1.523318627106202 0.869982824340532 38 16 7
0.338891321532263 -1.523318627106202 0.881429966766066 35 12 4
0.338891321532263 -1.523318627106202 0.892877109191599 30 6 4
0.338891321532263 -1.523318627106202 0.904324251617132 29 6 9
0.338891321532263 -1.523318627106202 0.915771394042666 30 6 9
0.338891321532263 -1.523318627106202 0.927218536468199 35 7 7
0.338891321532263 -1.523318627106202 0.938665678893732 39 8 1
0.338891321532263 -1.523318627106202 0.950112821319265 39 7 8
0.338891321532263 -1.523318627106202 0.961559963744799 39 8 8
0.338891321532263 -1.523318627106202 0.973007106170332 38 8 7
0.338891321532263 -1.523318627106202 0.984454248595865 38 8 4
0.338891321532263 -1.523318627106202 0.995901391021399 37 7 8
0.338891321532263 -1.523318627106202 1.007348533446932 30 5 6
0.338891321532263 -1.523318627106202 1.018795675872465 28 6 8
0.338891321532263 -1.523318627106202 1.030242818297999 32 7 7
0.338891321532263 -1.523318627106202 1.041689960723532 34 6 7
0.338891321532263 -1.523318627106202 1.053137103149065 29 6 7
0.338891321532263 -1.523318627106202 1.064584245574599 33 6 7
0.338891321532263 -1.523318627106202 1.076031388000132 43 8 5
0.338891321532263 -1.523318627106202 1.087478530425665 63 5 6
0.338891321532263 -1.523318627106202 1.098925672851199 59 13 9
0.338891321532263 -1.523318627106202 1.110372815276732 42 10 12
0.338891321532263 -1.523318627106202 1.121819957702265 31 7 8
0.338891321532263 -1.523318627106202 1.133267100127799 40 9 9
0.338891321532263 -1.523318627106202 1.144714242553332 52 12 9
0.338891321532263 -1.523318627106202 1.156161384978865 58 11 8
0.338891321532263 -1.523318627106202 1.167608527404399 47 8 10
0.338891321532263 -1.523318627106202 1.179055669829932 36 10 9
0.338891321532263 -1.523318627106202 1.190502812255465 56 12 9
0.338891321532263 -1.523318627106202 1.201949954680998 55 10 8
0.338891321532263 -1.523318627106202 1.213397097106532 59 21 11
0.338891321532263 -1.523318627106202 1.224844239532065 73 58 38
0.338891321532263 -1.523318627106202 1.236291381957599 74 73 65
0.338891321532263 -1.523318627106202 1.247738524383132 70 73 66
0.338891321532263 -1.511871484680669 0.412097127319200 57 11 9
0.338891321532263 -1.511871484680669 0.423544269744733 59 10 7
0.338891321532263 -1.511871484680669 0.434991412170266 58 10 7
0.338891321532263 -1.511871484680669 0.446438554595799 59 12 10
0.338891321532263 -1.511871484680669 0.457885697021333 64 15 11
0.338891321532263 -1.511871484680669 0.469332839446866 64 13 9
0.338891321532263 -1.511871484680669 0.480779981872399 66 13 18
0.338891321532263 -1.511871484680669 0.492227124297933 65 13 18
0.338891321532263 -1.511871484680669 0.503674266723466 62 14 9
0.338891321532263 -1.511871484680669 0.515121409148999 62 13 11
0.338891321532263 -1.511871484680669 0.526568551574533 57 12 10
0.338891321532263 -1.511871484680669 0.538015694000066 56 19 9
0.338891321532263 -1.511871484680669 0.549462836425599 63 19 9
0.338891321532263 -1.511871484680669 0.560909978851133 62 48 19
0.338891321532263 -1.511871484680669 0.572357121276666 62 58 37
0.338891321532263 -1.511871484680669 0.595251406127733 46 59 53
0.338891321532263 -1.511871484680669 0.606698548553266 45 50 53
0.338891321532263 -1.511871484680669 0.618145690978799 41 33 39
0.338891321532263 -1.511871484680669 0.629592833404333 44 41 38
0.338891321532263 -1.511871484680669 0.641039975829866 44 41 48
0.338891321532263 -1.511871484680669 0.652487118255399 50 59 57
0.338891321532263 -1.511871484680669 0.663934260680933 57 69 70
0.338891321532263 -1.511871484680669 0.755511400085199 53 53 59
0.338891321532263 -1.511871484680669 0.812747112212866 38 8 6
0.338891321532263 -1.511871484680669 0.824194254638399 38 7 6
0.338891321532263 -1.511871484680669 0.835641397063932 38 7 7
0.338891321532263 -1.511871484680669 0.847088539489466 40 8 8
0.338891321532263 -1.511871484680669 0.858535681914999 42 9 4
0.338891321532263 -1.511871484680669 0.869982824340532 42 9 8
0.338891321532263 -1.511871484680669 0.881429966766066 40 8 12
0.338891321532263 -1.511871484680669 0.892877109191599 39 6 4
0.338891321532263 -1.511871484680669 0.904324251617132 38 7 5
0.338891321532263 -1.511871484680669 0.915771394042666 36 4 7
0.338891321532263 -1.511871484680669 0.927218536468199 40 7 7
0.338891321532263 -1.511871484680669 0.938665678893732 43 8 10
0.338891321532263 -1.511871484680669 0.950112821319265 42 8 5
0.338891321532263 -1.511871484680669 0.961559963744799 45 8 4
0.338891321532263 -1.511871484680669 0.973007106170332 42 9 8
0.338891321532263 -1.511871484680669 0.984454248595865 38 8 5
0.338891321532263 -1.511871484680669 0.995901391021399 38 7 5
0.338891321532263 -1.511871484680669 1.007348533446932 37 7 5
0.338891321532263 -1.511871484680669 1.018795675872465 47 10 11
0.338891321532263 -1.511871484680669 1.030242818297999 58 11 11
0.338891321532263 -1.511871484680669 1.041689960723532 50 9 7
0.338891321532263 -1.511871484680669 1.053137103149065 43 6 9
0.338891321532263 -1.511871484680669 1.064584245574599 36 7 7
0.338891321532263 -1.511871484680669 1.076031388000132 33 7 7
0.338891321532263 -1.511871484680669 1.087478530425665 42 7 6
0.338891321532263 -1.511871484680669 1.098925672851199 60 10 7
0.338891321532263 -1.511871484680669 1.110372815276732 57 12 11
0.338891321532263 -1.511871484680669 1.121819957702265 43 10 8
0.338891321532263 -1.511871484680669 1.133267100127799 37 8 5
0.338891321532263 -1.511871484680669 1.144714242553332 42 7 6
0.338891321532263 -1.511871484680669 1.156161384978865 49 8 6
0.338891321532263 -1.511871484680669 1.167608527404399 47 10 8
0.338891321532263 -1.511871484680669 1.179055669829932 38 10 3
0.338891321532263 -1.511871484680669 1.190502812255465 38 7 4
0.338891321532263 -1.511871484680669 1.201949954680998 47 9 8
0.338891321532263 -1.511871484680669 1.213397097106532 42 8 7
0.338891321532263 -1.511871484680669 1.224844239532065 50 9 3
0.338891321532263 -1.511871484680669 1.236291381957599 71 12 8
0.338891321532263 -1.511871484680669 1.247738524383132 79 13 14
0.338891321532263 -1.511871484680669 1.259185666808665 71 14 9
0.338891321532263 -1.511871484680669 1.270632809234199 59 11 7
0.338891321532263 -1.511871484680669 1.282079951659732 70 16 15
0.338891321532263 -1.500424342255135 0.412097127319200 55 11 8
0.338891321532263 -1.500424342255135 0.423544269744733 55 12 11
0.338891321532263 -1.500424342255135 0.434991412170266 53 11 9
0.338891321532263 -1.500424342255135 0.446438554595799 57 11 9
0.338891321532263 -1.500424342255135 0.457885697021333 60 11 13
0.338891321532263 -1.500424342255135 0.469332839446866 60 12 8
0.338891321532263 -1.500424342255135 0.480779981872399 59 13 12
0.338891321532263 -1.500424342255135 0.492227124297933 59 14 10
0.338891321532263 -1.500424342255135 0.503674266723466 62 14 10
0.338891321532263 -1.500424342255135 0.515121409148999 62 12 14
0.338891321532263 -1.500424342255135 0.526568551574533 62 13 8
0.338891321532263 -1.500424342255135 0.538015694000066 62 14 8
0.338891321532263 -1.500424342255135 0.549462836425599 59 14 8
0.338891321532263 -1.500424342255135 0.560909978851133 59 13 11
0.338891321532263 -1.500424342255135 0.572357121276666 55 18 12
0.338891321532263 -1.500424342255135 0.583804263702199 55 13 7
0.338891321532263 -1.500424342255135 0.595251406127733 47 10 3
0.338891321532263 -1.500424342255135 0.606698548553266 44 9 8
0.338891321532263 -1.500424342255135 0.618145690978799 42 9 8
0.338891321532263 -1.500424342255135 0.629592833404333 41 9 7
0.338891321532263 -1.500424342255135 0.641039975829866 41 8 5
0.338891321532263 -1.500424342255135 0.652487118255399 42 10 4
0.338891321532263 -1.500424342255135 0.663934260680933 46 11 9
0.338891321532263 -1.500424342255135 0.675381403106466 51 11 9
0.338891321532263 -1.500424342255135 0.686828545531999 53 15 12
0.338891321532263 -1.500424342255135 0.698275687957532 48 19 7
0.338891321532263 -1.500424342255135 0.709722830383066 48 42 39
0.338891321532263 -1.500424342255135 0.721169972808599 48 36 32
0.338891321532263 -1.500424342255135 0.732617115234132 45 31 27
0.338891321532263 -1.500424342255135 0.744064257659666 45 26 25
0.338891321532263 -1.500424342255135 0.755511400085199 43 16 25
0.338891321532263 -1.500424342255135 0.766958542510732 42 9 15
0.338891321532263 -1.500424342255135 0.778405684936266 43 11 9
0.338891321532263 -1.500424342255135 0.789852827361799 43 11 13
0.338891321532263 -1.500424342255135 0.801299969787332 41 9 10
0.338891321532263 -1.500424342255135 0.812747112212866 40 8 6
0.338891321532263 -1.500424342255135 0.824194254638399 37 7 7
0.338891321532263 -1.500424342255135 0.835641397063932 38 8 7
0.338891321532263 -1.500424342255135 0.847088539489466 39 7 6
0.338891321532263 -1.500424342255135 0.858535681914999 40 6 12
0.338891321532263 -1.500424342255135 0.869982824340532 39 7 8
0.338891321532263 -1.500424342255135 0.881429966766066 39 7 10
0.338891321532263 -1.500424342255135 0.892877109191599 37 7 7
0.338891321532263 -1.500424342255135 0.904324251617132 39 6 7
0.338891321532263 -1.500424342255135 0.915771394042666 41 5 7
0.338891321532263 -1.500424342255135 0.927218536468199 39 7 2
0.338891321532263 -1.500424342255135 0.938665678893732 39 9 2
0.338891321532263 -1.500424342255135 0.950112821319265 40 7 9
0.338891321532263 -1.500424342255135 0.961559963744799 39 8 7
0.338891321532263 -1.500424342255135 0.973007106170332 36 7 7
0.338891321532263 -1.500424342255135 0.984454248595865 35 7 5
0.338891321532263 -1.500424342255135 0.995901391021399 34 7 7
0.338891321532263 -1.500424342255135 1.007348533446932 34 7 9
0.338891321532263 -1.500424342255135 1.018795675872465 50 12 12
0.338891321532263 -1.500424342255135 1.030242818297999 67 15 11
0.338891321532263 -1.500424342255135 1.041689960723532 73 14 11
0.338891321532263 -1.500424342255135 1.053137103149065 70 12 12
0.338891321532263 -1.500424342255135 1.064584245574599 59 10 6
0.338891321532263 -1.500424342255135 1.076031388000132 45 10 6
0.338891321532263 -1.500424342255135 1.087478530425665 40 8 7
0.338891321532263 -1.500424342255135 1.098925672851199 43 7 7
0.338891321532263 -1.500424342255135 1.110372815276732 48 10 5
0.338891321532263 -1.500424342255135 1.121819957702265 54 11 11
0.338891321532263 -1.500424342255135 1.133267100127799 40 8 13
0.338891321532263 -1.500424342255135 1.144714242553332 52 10 9
0.338891321532263 -1.500424342255135 1.156161384978865 51 13 4
0.338891321532263 -1.500424342255135 1.167608527404399 58 9 10
0.338891321532263 -1.500424342255135 1.179055669829932 54 12 11
0.338891321532263 -1.500424342255135 1.190502812255465 42 9 8
0.338891321532263 -1.500424342255135 1.201949954680998 41 9 7
0.338891321532263 -1.500424342255135 1.213397097106532 43 9 6
0.338891321532263 -1.500424342255135 1.224844239532065 35 7 9
0.338891321532263 -1.500424342255135 1.236291381957599 43 7 4
0.338891321532263 -1.500424342255135 1.247738524383132 85 12 6
0.338891321532263 -1.500424342255135 1.259185666808665 91 16 15
0.338891321532263 -1.500424342255135 1.270632809234199 64 13 10
0.338891321532263 -1.500424342255135 1.282079951659732 62 10 9
0.338891321532263 -1.500424342255135 1.293527094085265 87 14 10
0.338891321532263 -1.500424342255135 1.304974236510798 97 48 27
0.338891321532263 -1.500424342255135 1.316421378936332 73 82 60
0.338891321532263 -1.488977199829602 0.377755700042600 44 10 6
0.338891321532263 -1.488977199829602 0.389202842468133 45 9 4
0.338891321532263 -1.488977199829602 0.400649984893666 47 9 4
0.338891321532263 -1.488977199829602 0.412097127319200 48 9 8
0.338891321532263 -1.488977199829602 0.423544269744733 48 9 11
0.338891321532263 -1.488977199829602 0.434991412170266 52 11 8
0.338891321532263 -1.488977199829602 0.446438554595799 52 11 8
0.338891321532263 -1.488977199829602 0.457885697021333 54 13 6
0.338891321532263 -1.488977199829602 0.469332839446866 55 11 10
0.338891321532263 -1.488977199829602 0.480779981872399 55 11 20
0.338891321532263 -1.488977199829602 0.492227124297933 56 12 8
0.338891321532263 -1.488977199829602 0.503674266723466 58 12 8
0.338891321532263 -1.488977199829602 0.515121409148999 62 13 20
0.338891321532263 -1.488977199829602 0.526568551574533 62 12 10
0.338891321532263 -1.488977199829602 0.538015694000066 60 13 13
0.338891321532263 -1.488977199829602 0.549462836425599 60 13 7
0.338891321532263 -1.488977199829602 0.560909978851133 62 13 7
0.338891321532263 -1.488977199829602 0.572357121276666 60 14 4
0.338891321532263 -1.488977199829602 0.583804263702199 57 12 9
0.338891321532263 -1.488977199829602 0.595251406127733 57 11 10
0.338891321532263 -1.488977199829602 0.606698548553266 56 11 6
0.338891321532263 -1.488977199829602 0.618145690978799 55 11 6
0.338891321532263 -1.488977199829602 0.629592833404333 50 10 6
0.338891321532263 -1.488977199829602 0.641039975829866 54 11 8
0.338891321532263 -1.488977199829602 0.652487118255399 54 10 8
0.338891321532263 -1.488977199829602 0.663934260680933 51 10 8
0.338891321532263 -1.488977199829602 0.675381403106466 48 10 8
0.338891321532263 -1.488977199829602 0.686828545531999 47 10 8
0.338891321532263 -1.488977199829602 0.698275687957532 45 9 7
0.338891321532263 -1.488977199829602 0.709722830383066 43 9 8
0.338891321532263 -1.488977199829602 0.721169972808599 43 8 8
0.338891321532263 -1.488977199829602 0.732617115234132 42 7 4
0.338891321532263 -1.488977199829602 0.744064257659666 42 9 6
0.338891321532263 -1.488977199829602 0.755511400085199 39 9 6
0.338891321532263 -1.488977199829602 0.766958542510732 43 10 5
0.338891321532263 -1.488977199829602 0.778405684936266 43 9 7
0.338891321532263 -1.488977199829602 0.789852827361799 39 6 12
0.338891321532263 -1.488977199829602 0.801299969787332 39 8 6
0.338891321532263 -1.488977199829602 0.812747112212866 38 10 15
0.338891321532263 -1.488977199829602 0.824194254638399 41 8 7
0.338891321532263 -1.488977199829602 0.835641397063932 42 8 7
0.338891321532263 -1.488977199829602 0.847088539489466 40 8 7
0.338891321532263 -1.488977199829602 0.858535681914999 37 8 8
0.338891321532263 -1.488977199829602 0.869982824340532 39 8 6
0.338891321532263 -1.488977199829602 0.881429966766066 41 6 8
0.338891321532263 -1.488977199829602 0.892877109191599 41 6 8
0.338891321532263 -1.488977199829602 0.904324251617132 40 7 1
0.338891321532263 -1.488977199829602 0.915771394042666 40 6 9
0.338891321532263 -1.488977199829602 0.927218536468199 38 6 6
0.338891321532263 -1.488977199829602 0.938665678893732 35 8 6
0.338891321532263 -1.488977199829602 0.950112821319265 42 8 6
0.338891321532263 -1.488977199829602 0.961559963744799 44 8 6
0.338891321532263 -1.488977199829602 0.973007106170332 41 7 8
0.338891321532263 -1.488977199829602 0.984454248595865 36 8 8
0.338891321532263 -1.488977199829602 0.995901391021399 33 7 5
0.338891321532263 -1.488977199829602 1.007348533446932 36 7 7
0.338891321532263 -1.488977199829602 1.018795675872465 36 7 9
0.338891321532263 -1.488977199829602 1.030242818297999 37 10 11
0.338891321532263 -1.488977199829602 1.041689960723532 47 13 10
0.338891321532263 -1.488977199829602 1.053137103149065 59 12 9
0.338891321532263 -1.488977199829602 1.064584245574599 61 10 7
0.338891321532263 -1.488977199829602 1.076031388000132 51 6 6
0.338891321532263 -1.488977199829602 1.087478530425665 40 6 5
0.338891321532263 -1.488977199829602 1.098925672851199 34 7 7
0.338891321532263 -1.488977199829602 1.110372815276732 31 6 6
0.338891321532263 -1.488977199829602 1.121819957702265 49 9 5
0.338891321532263 -1.488977199829602 1.133267100127799 80 26 5
0.338891321532263 -1.488977199829602 1.144714242553332 114 88 52
0.338891321532263 -1.488977199829602 1.156161384978865 74 52 68
0.338891321532263 -1.488977199829602 1.167608527404399 43 11 14
0.338891321532263 -1.488977199829602 1.179055669829932 50 10 7
0.338891321532263 -1.488977199829602 1.190502812255465 57 10 9
0.338891321532263 -1.488977199829602 1.201949954680998 62 10 10
0.338891321532263 -1.488977199829602 1.213397097106532 58 9 7
0.338891321532263 -1.488977199829602 1.224844239532065 57 8 4
0.338891321532263 -1.488977199829602 1.236291381957599 42 6 8
0.338891321532263 -1.488977199829602 1.247738524383132 43 8 9
0.338891321532263 -1.488977199829602 1.259185666808665 73 16 11
0.338891321532263 -1.488977199829602 1.270632809234199 89 12 11
0.338891321532263 -1.488977199829602 1.282079951659732 66 9 8
0.338891321532263 -1.488977199829602 1.293527094085265 61 13 7
0.338891321532263 -1.488977199829602 1.304974236510798 86 17 14
0.338891321532263 -1.488977199829602 1.316421378936332 89 23 16
0.338891321532263 -1.488977199829602 1.327868521361865 64 38 38
0.338891321532263 -1.488977199829602 1.339315663787398 75 81 51
0.338891321532263 -1.477530057404069 0.377755700042600 39 8 8
0.338891321532263 -1.477530057404069 0.389202842468133 39 8 10
0.338891321532263 -1.477530057404069 0.400649984893666 40 8 7
0.338891321532263 -1.477530057404069 0.412097127319200 43 9 7
0.338891321532263 -1.477530057404069 0.423544269744733 42 10 8
0.338891321532263 -1.477530057404069 0.434991412170266 42 10 9
0.338891321532263 -1.477530057404069 0.492227124297933 53 11 8
0.338891321532263 -1.477530057404069 0.503674266723466 53 11 5
0.338891321532263 -1.477530057404069 0.515121409148999 58 11 5
0.338891321532263 -1.477530057404069 0.526568551574533 56 11 9
0.338891321532263 -1.477530057404069 0.538015694000066 56 12 4
0.338891321532263 -1.477530057404069 0.549462836425599 58 12 9
0.338891321532263 -1.477530057404069 0.560909978851133 57 13 13
0.338891321532263 -1.477530057404069 0.572357121276666 60 13 13
0.338891321532263 -1.477530057404069 0.583804263702199 55 11 7
0.338891321532263 -1.477530057404069 0.595251406127733 55 11 5
0.338891321532263 -1.477530057404069 0.606698548553266 54 10 7
0.338891321532263 -1.477530057404069 0.618145690978799 53 12 7
0.338891321532263 -1.477530057404069 0.629592833404333 51 12 7
0.338891321532263 -1.477530057404069 0.641039975829866 47 10 7
0.338891321532263 -1.477530057404069 0.652487118255399 52 10 5
0.338891321532263 -1.477530057404069 0.663934260680933 52 10 9
0.338891321532263 -1.477530057404069 0.675381403106466 52 9 9
0.338891321532263 -1.477530057404069 0.686828545531999 48 9 6
0.338891321532263 -1.477530057404069 0.698275687957532 47 9 6
0.338891321532263 -1.477530057404069 0.709722830383066 46 7 10
0.338891321532263 -1.477530057404069 0.721169972808599 40 9 7
0.338891321532263 -1.477530057404069 0.732617115234132 40 8 10
0.338891321532263 -1.477530057404069 0.744064257659666 40 7 6
0.338891321532263 -1.477530057404069 0.755511400085199 44 5 10
0.338891321532263 -1.477530057404069 0.766958542510732 46 5 10
0.338891321532263 -1.477530057404069 0.778405684936266 41 9 4
0.338891321532263 -1.477530057404069 0.789852827361799 41 7 0
0.338891321532263 -1.477530057404069 0.801299969787332 42 9 7
0.338891321532263 -1.477530057404069 0.812747112212866 42 9 4
0.338891321532263 -1.477530057404069 0.824194254638399 40 8 5
0.338891321532263 -1.477530057404069 0.835641397063932 37 8 5
0.338891321532263 -1.477530057404069 0.847088539489466 37 8 1
0.338891321532263 -1.477530057404069 0.858535681914999 37 8 1
0.338891321532263 -1.477530057404069 0.869982824340532 41 8 7
0.338891321532263 -1.477530057404069 0.881429966766066 41 11 6
0.338891321532263 -1.477530057404069 0.892877109191599 44 8 5
0.338891321532263 -1.477530057404069 0.904324251617132 44 7 8
0.338891321532263 -1.477530057404069 0.915771394042666 38 8 8
0.338891321532263 -1.477530057404069 0.927218536468199 34 8 5
0.338891321532263 -1.477530057404069 0.938665678893732 38 8 8
0.338891321532263 -1.477530057404069 0.950112821319265 46 8 7
0.338891321532263 -1.477530057404069 0.961559963744799 49 8 7
0.338891321532263 -1.477530057404069 0.973007106170332 44 8 5
0.338891321532263 -1.477530057404069 0.984454248595865 37 7 8
0.338891321532263 -1.477530057404069 0.995901391021399 38 7 8
0.338891321532263 -1.477530057404069 1.007348533446932 36 7 7
0.338891321532263 -1.477530057404069 1.018795675872465 25 6 6
0.338891321532263 -1.477530057404069 1.030242818297999 23 6 4
0.338891321532263 -1.477530057404069 1.041689960723532 23 5 6
0.338891321532263 -1.477530057404069 1.053137103149065 29 7 7
0.338891321532263 -1.477530057404069 1.064584245574599 37 9 4
0.338891321532263 -1.477530057404069 1.076031388000132 49 12 4
0.338891321532263 -1.477530057404069 1.087478530425665 55 10 10
0.338891321532263 -1.477530057404069 1.098925672851199 49 6 5
0.338891321532263 -1.477530057404069 1.110372815276732 38 4 6
0.338891321532263 -1.477530057404069 1.121819957702265 58 7 12
0.338891321532263 -1.477530057404069 1.133267100127799 103 16 14
0.338891321532263 -1.477530057404069 1.144714242553332 93 25 25
0.338891321532263 -1.477530057404069 1.156161384978865 54 20 9
0.338891321532263 -1.477530057404069 1.167608527404399 42 8 9
0.338891321532263 -1.477530057404069 1.179055669829932 45 9 11
0.338891321532263 -1.477530057404069 1.190502812255465 50 10 8
0.338891321532263 -1.477530057404069 1.201949954680998 53 10 8
0.338891321532263 -1.477530057404069 1.213397097106532 62 10 9
0.338891321532263 -1.477530057404069 1.224844239532065 64 10 11
0.338891321532263 -1.477530057404069 1.236291381957599 61 9 6
0.338891321532263 -1.477530057404069 1.247738524383132 45 6 4
0.338891321532263 -1.477530057404069 1.259185666808665 60 10 8
0.338891321532263 -1.477530057404069 1.270632809234199 85 13 11
0.338891321532263 -1.477530057404069 1.282079951659732 73 10 11
0.338891321532263 -1.477530057404069 1.293527094085265 54 9 7
0.338891321532263 -1.477530057404069 1.304974236510798 82 13 8
0.338891321532263 -1.477530057404069 1.316421378936332 98 14 3
0.338891321532263 -1.477530057404069 1.327868521361865 63 11 9
0.338891321532263 -1.477530057404069 1.339315663787398 72 12 31
0.338891321532263 -1.477530057404069 1.350762806212932 93 57 71
0.338891321532263 -1.477530057404069 1.362209948638465 77 82 69
0.338891321532263 -1.466082914978535 0.492227124297933 46 9 6
0.338891321532263 -1.466082914978535 0.503674266723466 47 9 10
0.338891321532263 -1.466082914978535 0.515121409148999 48 10 10
0.338891321532263 -1.466082914978535 0.526568551574533 47 8 7
0.338891321532263 -1.466082914978535 0.538015694000066 49 9 8
0.338891321532263 -1.466082914978535 0.549462836425599 49 9 4
0.338891321532263 -1.466082914978535 0.560909978851133 50 8 4
0.338891321532263 -1.466082914978535 0.572357121276666 52 8 4
0.338891321532263 -1.466082914978535 0.583804263702199 51 8 8
0.338891321532263 -1.466082914978535 0.595251406127733 53 9 7
0.338891321532263 -1.466082914978535 0.606698548553266 53 9 7
0.338891321532263 -1.466082914978535 0.618145690978799 55 9 9
0.338891321532263 -1.466082914978535 0.629592833404333 53 9 9
0.338891321532263 -1.466082914978535 0.641039975829866 53 9 7
0.338891321532263 -1.466082914978535 0.652487118255399 53 9 8
0.338891321532263 -1.466082914978535 0.663934260680933 53 9 6
0.338891321532263 -1.466082914978535 0.675381403106466 52 9 7
0.338891321532263 -1.466082914978535 0.686828545531999 48 10 8
0.338891321532263 -1.466082914978535 0.698275687957532 47 10 8
0.338891321532263 -1.466082914978535 0.709722830383066 43 9 6
0.338891321532263 -1.466082914978535 0.721169972808599 43 8 8
0.338891321532263 -1.466082914978535 0.732617115234132 43 7 5
0.338891321532263 -1.466082914978535 0.744064257659666 43 9 8
0.338891321532263 -1.466082914978535 0.755511400085199 44 5 3
0.338891321532263 -1.466082914978535 0.766958542510732 45 8 7
0.338891321532263 -1.466082914978535 0.778405684936266 43 8 7
0.338891321532263 -1.466082914978535 0.789852827361799 44 7 7
0.338891321532263 -1.466082914978535 0.801299969787332 43 9 7
0.338891321532263 -1.466082914978535 0.812747112212866 41 10 0
0.338891321532263 -1.466082914978535 0.824194254638399 41 7 6
0.338891321532263 -1.466082914978535 0.835641397063932 40 8 4
0.338891321532263 -1.466082914978535 0.847088539489466 36 11 6
0.338891321532263 -1.466082914978535 0.858535681914999 40 8 6
0.338891321532263 -1.466082914978535 0.869982824340532 45 8 6
0.338891321532263 -1.466082914978535 0.881429966766066 45 9 6
0.338891321532263 -1.466082914978535 0.892877109191599 42 9 7
0.338891321532263 -1.466082914978535 0.904324251617132 34 10 16
0.338891321532263 -1.466082914978535 0.915771394042666 34 7 4
0.338891321532263 -1.466082914978535 0.927218536468199 31 4 9
0.338891321532263 -1.466082914978535 0.938665678893732 37 9 6
0.338891321532263 -1.466082914978535 0.950112821319265 46 11 5
0.338891321532263 -1.466082914978535 0.961559963744799 48 9 7
0.338891321532263 -1.466082914978535 0.973007106170332 42 9 7
0.338891321532263 -1.466082914978535 0.984454248595865 35 7 9
0.338891321532263 -1.466082914978535 0.995901391021399 39 8 5
0.338891321532263 -1.466082914978535 1.007348533446932 46 10 7
0.338891321532263 -1.466082914978535 1.018795675872465 38 8 7
0.338891321532263 -1.466082914978535 1.030242818297999 27 6 8
0.338891321532263 -1.466082914978535 1.041689960723532 20 5 7
0.338891321532263 -1.466082914978535 1.053137103149065 20 6 0
0.338891321532263 -1.466082914978535 1.064584245574599 24 6 6
0.338891321532263 -1.466082914978535 1.076031388000132 37 8 9
0.338891321532263 -1.466082914978535 1.087478530425665 44 9 6
0.338891321532263 -1.466082914978535 1.098925672851199 47 11 6
0.338891321532263 -1.466082914978535 1.110372815276732 48 10 8
0.338891321532263 -1.466082914978535 1.121819957702265 65 14 16
0.338891321532263 -1.466082914978535 1.133267100127799 98 20 12
0.338891321532263 -1.466082914978535 1.144714242553332 107 24 13
0.338891321532263 -1.466082914978535 1.156161384978865 104 56 47
0.338891321532263 -1.466082914978535 1.167608527404399 116 75 74
0.338891321532263 -1.466082914978535 1.179055669829932 108 58 62
0.338891321532263 -1.466082914978535 1.190502812255465 85 37 45
0.338891321532263 -1.466082914978535 1.201949954680998 76 26 36
0.338891321532263 -1.466082914978535 1.213397097106532 69 16 20
0.338891321532263 -1.466082914978535 1.224844239532065 65 12 9
0.338891321532263 -1.466082914978535 1.236291381957599 69 12 3
0.338891321532263 -1.466082914978535 1.247738524383132 63 10 7
0.338891321532263 -1.466082914978535 1.259185666808665 51 10 7
0.338891321532263 -1.466082914978535 1.270632809234199 77 17 7
0.338891321532263 -1.466082914978535 1.282079951659732 82 11 8
0.338891321532263 -1.466082914978535 1.293527094085265 55 10 8
0.338891321532263 -1.466082914978535 1.304974236510798 74 17 9
0.338891321532263 -1.466082914978535 1.316421378936332 103 16 11
0.338891321532263 -1.466082914978535 1.327868521361865 70 10 9
0.338891321532263 -1.466082914978535 1.339315663787398 70 18 14
0.338891321532263 -1.466082914978535 1.350762806212932 101 29 17
0.338891321532263 -1.466082914978535 1.362209948638465 97 52 29
0.338891321532263 -1.466082914978535 1.373657091063998 78 80 70
0.338891321532263 -1.454635772553002 0.492227124297933 41 9 6
0.338891321532263 -1.454635772553002 0.503674266723466 42 8 15
0.338891321532263 -1.454635772553002 0.515121409148999 46 8 7
0.338891321532263 -1.454635772553002 0.526568551574533 45 8 7
0.338891321532263 -1.454635772553002 0.538015694000066 45 7 6
0.338891321532263 -1.454635772553002 0.549462836425599 45 7 10
0.338891321532263 -1.454635772553002 0.560909978851133 48 9 6
0.338891321532263 -1.454635772553002 0.572357121276666 47 9 8
0.338891321532263 -1.454635772553002 0.583804263702199 52 8 8
0.338891321532263 -1.454635772553002 0.595251406127733 52 9 7
0.338891321532263 -1.454635772553002 0.606698548553266 52 9 8
0.338891321532263 -1.454635772553002 0.618145690978799 52 10 6
0.338891321532263 -1.454635772553002 0.629592833404333 51 10 8
0.338891321532263 -1.454635772553002 0.641039975829866 50 11 8
0.338891321532263 -1.454635772553002 0.652487118255399 52 10 8
0.338891321532263 -1.454635772553002 0.663934260680933 49 8 8
0.338891321532263 -1.454635772553002 0.675381403106466 49 8 9
0.338891321532263 -1.454635772553002 0.686828545531999 52 9 5
0.338891321532263 -1.454635772553002 0.698275687957532 52 10 9
0.338891321532263 -1.454635772553002 0.709722830383066 46 8 9
0.338891321532263 -1.454635772553002 0.721169972808599 47 6 7
0.338891321532263 -1.454635772553002 0.732617115234132 48 9 8
0.338891321532263 -1.454635772553002 0.744064257659666 48 9 8
0.338891321532263 -1.454635772553002 0.755511400085199 45 8 10
0.338891321532263 -1.454635772553002 0.766958542510732 44 8 8
0.338891321532263 -1.454635772553002 0.778405684936266 47 9 3
0.338891321532263 -1.454635772553002 0.789852827361799 44 7 3
0.338891321532263 -1.454635772553002 0.801299969787332 41 7 8
0.338891321532263 -1.454635772553002 0.812747112212866 41 7 8
0.338891321532263 -1.454635772553002 0.824194254638399 41 7 4
0.338891321532263 -1.454635772553002 0.835641397063932 38 7 6
0.338891321532263 -1.454635772553002 0.847088539489466 43 8 11
0.338891321532263 -1.454635772553002 0.858535681914999 46 7 7
0.338891321532263 -1.454635772553002 0.869982824340532 48 7 7
0.338891321532263 -1.454635772553002 0.881429966766066 48 9 10
0.338891321532263 -1.454635772553002 0.892877109191599 40 8 6
0.338891321532263 -1.454635772553002 0.904324251617132 35 6 6
0.338891321532263 -1.454635772553002 0.915771394042666 32 7 6
0.338891321532263 -1.454635772553002 0.927218536468199 32 7 5
0.338891321532263 -1.454635772553002 0.938665678893732 42 7 8
0.338891321532263 -1.454635772553002 0.950112821319265 50 9 10
0.338891321532263 -1.454635772553002 0.961559963744799 42 7 8
0.338891321532263 -1.454635772553002 0.973007106170332 37 7 5
0.338891321532263 -1.454635772553002 0.984454248595865 34 7 7
0.338891321532263 -1.454635772553002 0.995901391021399 31 7 7
0.338891321532263 -1.454635772553002 1.007348533446932 41 6 11
0.338891321532263 -1.454635772553002 1.018795675872465 50 9 7
0.338891321532263 -1.454635772553002 1.030242818297999 51 10 1
0.338891321532263 -1.454635772553002 1.041689960723532 38 8 6
0.338891321532263 -1.454635772553002 1.053137103149065 46 8 9
0.338891321532263 -1.454635772553002 1.064584245574599 63 11 8
0.338891321532263 -1.454635772553002 1.076031388000132 63 13 10
0.338891321532263 -1.454635772553002 1.087478530425665 65 11 11
0.338891321532263 -1.454635772553002 1.098925672851199 53 9 12
0.338891321532263 -1.454635772553002 1.110372815276732 46 9 7
0.338891321532263 -1.454635772553002 1.121819957702265 50 13 0
0.338891321532263 -1.454635772553002 1.133267100127799 77 16 14
0.338891321532263 -1.454635772553002 1.144714242553332 104 19 8
0.338891321532263 -1.454635772553002 1.156161384978865 107 46 25
0.338891321532263 -1.454635772553002 1.167608527404399 142 106 91
0.338891321532263 -1.454635772553002 1.179055669829932 172 105 94
0.338891321532263 -1.454635772553002 1.190502812255465 156 95 88
0.338891321532263 -1.454635772553002 1.201949954680998 142 78 64
0.338891321532263 -1.454635772553002 1.213397097106532 123 63 62
0.338891321532263 -1.454635772553002 1.224844239532065 104 39 49
0.338891321532263 -1.454635772553002 1.236291381957599 85 18 20
0.338891321532263 -1.454635772553002 1.247738524383132 70 13 7
0.338891321532263 -1.454635772553002 1.259185666808665 64 11 8
0.338891321532263 -1.454635772553002 1.270632809234199 72 15 12
0.338891321532263 -1.454635772553002 1.282079951659732 87 13 7
0.338891321532263 -1.454635772553002 1.293527094085265 65 10 5
0.338891321532263 -1.454635772553002 1.304974236510798 70 16 14
0.338891321532263 -1.454635772553002 1.316421378936332 99 16 9
0.338891321532263 -1.454635772553002 1.327868521361865 75 10 7
0.338891321532263 -1.454635772553002 1.339315663787398 71 16 13
0.338891321532263 -1.454635772553002 1.350762806212932 111 22 18
0.338891321532263 -1.454635772553002 1.362209948638465 116 23 16
0.338891321532263 -1.454635772553002 1.373657091063998 93 69 56
0.338891321532263 -1.443188630127469 0.492227124297933 40 8 6
0.338891321532263 -1.443188630127469 0.503674266723466 40 8 8
0.338891321532263 -1.443188630127469 0.515121409148999 39 7 9
0.338891321532263 -1.443188630127469 0.526568551574533 43 8 9
0.338891321532263 -1.443188630127469 0.538015694000066 46 7 17
0.338891321532263 -1.443188630127469 0.549462836425599 43 7 7
0.338891321532263 -1.443188630127469 0.560909978851133 43 7 7
0.338891321532263 -1.443188630127469 0.572357121276666 44 9 10
0.338891321532263 -1.443188630127469 0.583804263702199 50 9 10
0.338891321532263 -1.443188630127469 0.595251406127733 51 9 9
0.338891321532263 -1.443188630127469 0.606698548553266 47 8 8
0.338891321532263 -1.443188630127469 0.618145690978799 47 8 7
0.338891321532263 -1.443188630127469 0.629592833404333 49 8 6
0.338891321532263 -1.443188630127469 0.641039975829866 49 9 11
0.338891321532263 -1.443188630127469 0.652487118255399 53 10 11
0.338891321532263 -1.443188630127469 0.663934260680933 54 9 8
0.338891321532263 -1.443188630127469 0.675381403106466 54 8 6
0.338891321532263 -1.443188630127469 0.686828545531999 54 8 7
0.338891321532263 -1.443188630127469 0.698275687957532 54 7 6
0.338891321532263 -1.443188630127469 0.709722830383066 46 9 7
0.338891321532263 -1.443188630127469 0.721169972808599 49 9 7
0.338891321532263 -1.443188630127469 0.732617115234132 53 8 7
0.338891321532263 -1.443188630127469 0.744064257659666 49 9 8
0.338891321532263 -1.443188630127469 0.755511400085199 49 9 0
0.338891321532263 -1.443188630127469 0.766958542510732 44 8 9
0.338891321532263 -1.443188630127469 0.778405684936266 48 8 11
0.338891321532263 -1.443188630127469 0.789852827361799 47 9 11
0.338891321532263 -1.443188630127469 0.801299969787332 40 6 7
0.338891321532263 -1.443188630127469 0.812747112212866 41 7 11
0.338891321532263 -1.443188630127469 0.824194254638399 41 7 6
0.338891321532263 -1.443188630127469 0.835641397063932 41 7 8
0.338891321532263 -1.443188630127469 0.847088539489466 43 7 9
0.338891321532263 -1.443188630127469 0.858535681914999 45 9 6
0.338891321532263 -1.443188630127469 0.869982824340532 49 9 8
0.338891321532263 -1.443188630127469 0.881429966766066 46 8 8
0.338891321532263 -1.443188630127469 0.892877109191599 40 7 8
0.338891321532263 -1.443188630127469 0.904324251617132 38 7 7
0.338891321532263 -1.443188630127469 0.915771394042666 36 6 7
0.338891321532263 -1.443188630127469 0.927218536468199 41 7 11
0.338891321532263 -1.443188630127469 0.938665678893732 41 7 5
0.338891321532263 -1.443188630127469 0.950112821319265 48 9 6
0.338891321532263 -1.443188630127469 0.961559963744799 41 9 8
0.338891321532263 -1.443188630127469 0.973007106170332 37 7 8
0.338891321532263 -1.443188630127469 0.984454248595865 34 6 5
0.338891321532263 -1.443188630127469 0.995901391021399 34 6 0
0.338891321532263 -1.443188630127469 1.007348533446932 36 10 0
0.338891321532263 -1.443188630127469 1.018795675872465 42 8 9
0.338891321532263 -1.443188630127469 1.030242818297999 50 10 12
0.338891321532263 -1.443188630127469 1.041689960723532 49 9 7
0.338891321532263 -1.443188630127469 1.053137103149065 64 10 3
0.338891321532263 -1.443188630127469 1.064584245574599 84 15 11
0.338891321532263 -1.443188630127469 1.076031388000132 89 14 13
0.338891321532263 -1.443188630127469 1.087478530425665 92 14 9
0.338891321532263 -1.443188630127469 1.098925672851199 92 14 7
0.338891321532263 -1.443188630127469 1.110372815276732 81 12 10
0.338891321532263 -1.443188630127469 1.121819957702265 65 9 9
0.338891321532263 -1.443188630127469 1.133267100127799 54 9 8
0.338891321532263 -1.443188630127469 1.144714242553332 63 12 18
0.338891321532263 -1.443188630127469 1.156161384978865 93 16 14
0.338891321532263 -1.443188630127469 1.167608527404399 123 39 75
0.338891321532263 -1.443188630127469 1.179055669829932 181 120 108
0.338891321532263 -1.443188630127469 1.190502812255465 223 135 106
0.338891321532263 -1.443188630127469 1.201949954680998 208 126 89
0.338891321532263 -1.443188630127469 1.213397097106532 194 112 79
0.338891321532263 -1.443188630127469 1.224844239532065 185 103 81
0.338891321532263 -1.443188630127469 1.236291381957599 198 117 99
0.338891321532263 -1.443188630127469 1.247738524383132 197 104 50
0.338891321532263 -1.443188630127469 1.259185666808665 146 39 9
0.338891321532263 -1.443188630127469 1.270632809234199 98 13 4
0.338891321532263 -1.443188630127469 1.282079951659732 85 13 12
0.338891321532263 -1.443188630127469 1.293527094085265 79 12 7
0.338891321532263 -1.443188630127469 1.304974236510798 71 11 11
0.338891321532263 -1.443188630127469 1.316421378936332 96 16 12
0.338891321532263 -1.443188630127469 1.327868521361865 81 11 6
0.338891321532263 -1.443188630127469 1.339315663787398 71 11 10
0.338891321532263 -1.443188630127469 1.350762806212932 117 19 17
0.338891321532263 -1.443188630127469 1.362209948638465 136 22 14
0.338891321532263 -1.443188630127469 1.373657091063998 122 18 21
0.338891321532263 -1.443188630127469 1.385104233489532 89 72 61
0.338891321532263 -1.431741487701935 0.480779981872399 35 6 6
0.338891321532263 -1.431741487701935 0.492227124297933 36 7 8
0.338891321532263 -1.431741487701935 0.503674266723466 36 7 6
0.338891321532263 -1.431741487701935 0.515121409148999 36 8 7
0.338891321532263 -1.431741487701935 0.526568551574533 42 8 6
0.338891321532263 -1.431741487701935 0.538015694000066 44 8 6
0.338891321532263 -1.431741487701935 0.549462836425599 41 8 5
0.338891321532263 -1.431741487701935 0.560909978851133 41 8 7
0.338891321532263 -1.431741487701935 0.572357121276666 45 8 7
0.338891321532263 -1.431741487701935 0.583804263702199 48 9 12
0.338891321532263 -1.431741487701935 0.595251406127733 46 9 12
0.338891321532263 -1.431741487701935 0.606698548553266 46 9 8
0.338891321532263 -1.431741487701935 0.618145690978799 45 8 6
0.338891321532263 -1.431741487701935 0.629592833404333 45 8 7
0.338891321532263 -1.431741487701935 0.641039975829866 47 9 7
0.338891321532263 -1.431741487701935 0.652487118255399 52 9 7
0.338891321532263 -1.431741487701935 0.663934260680933 53 8 7
0.338891321532263 -1.431741487701935 0.675381403106466 56 10 9
0.338891321532263 -1.431741487701935 0.686828545531999 56 10 6
0.338891321532263 -1.431741487701935 0.698275687957532 50 9 10
0.338891321532263 -1.431741487701935 0.709722830383066 48 7 6
0.338891321532263 -1.431741487701935 0.721169972808599 52 9 6
0.338891321532263 -1.431741487701935 0.732617115234132 50 8 2
0.338891321532263 -1.431741487701935 0.744064257659666 43 8 10
0.338891321532263 -1.431741487701935 0.755511400085199 48 9 8
0.338891321532263 -1.431741487701935 0.766958542510732 48 9 6
0.338891321532263 -1.431741487701935 0.778405684936266 51 7 4
0.338891321532263 -1.431741487701935 0.789852827361799 45 7 7
0.338891321532263 -1.431741487701935 0.801299969787332 39 7 7
0.338891321532263 -1.431741487701935 0.812747112212866 39 7 14
0.338891321532263 -1.431741487701935 0.824194254638399 44 8 7
0.338891321532263 -1.431741487701935 0.835641397063932 42 8 7
0.338891321532263 -1.431741487701935 0.847088539489466 42 8 11
0.338891321532263 -1.431741487701935 0.858535681914999 46 7 6
0.338891321532263 -1.431741487701935 0.869982824340532 49 9 5
0.338891321532263 -1.431741487701935 0.881429966766066 46 7 7
0.338891321532263 -1.431741487701935 0.892877109191599 43 7 7
0.338891321532263 -1.431741487701935 0.904324251617132 40 6 14
0.338891321532263 -1.431741487701935 0.915771394042666 37 6 7
0.338891321532263 -1.431741487701935 0.927218536468199 43 8 5
0.338891321532263 -1.431741487701935 0.938665678893732 44 8 7
0.338891321532263 -1.431741487701935 0.950112821319265 44 8 8
0.338891321532263 -1.431741487701935 0.961559963744799 39 6 7
0.338891321532263 -1.431741487701935 0.973007106170332 36 7 3
0.338891321532263 -1.431741487701935 0.984454248595865 36 6 8
0.338891321532263 -1.431741487701935 0.995901391021399 36 7 12
0.338891321532263 -1.431741487701935 1.007348533446932 39 8 7
0.338891321532263 -1.431741487701935 1.018795675872465 38 8 7
0.338891321532263 -1.431741487701935 1.030242818297999 41 7 3
0.338891321532263 -1.431741487701935 1.041689960723532 46 8 7
0.338891321532263 -1.431741487701935 1.053137103149065 62 11 10
0.338891321532263 -1.431741487701935 1.064584245574599 84 13 10
0.338891321532263 -1.431741487701935 1.076031388000132 89 14 11
0.338891321532263 -1.431741487701935 1.087478530425665 90 16 14
0.338891321532263 -1.431741487701935 1.098925672851199 86 13 13
0.338891321532263 -1.431741487701935 1.110372815276732 75 15 9
0.338891321532263 -1.431741487701935 1.121819957702265 75 15 10
0.338891321532263 -1.431741487701935 1.133267100127799 67 9 8
0.338891321532263 -1.431741487701935 1.144714242553332 58 9 10
0.338891321532263 -1.431741487701935 1.156161384978865 80 14 13
0.338891321532263 -1.431741487701935 1.167608527404399 107 22 39
0.338891321532263 -1.431741487701935 1.179055669829932 162 93 107
0.338891321532263 -1.431741487701935 1.190502812255465 222 138 115
0.338891321532263 -1.431741487701935 1.201949954680998 228 134 100
0.338891321532263 -1.431741487701935 1.213397097106532 213 131 99
0.338891321532263 -1.431741487701935 1.224844239532065 204 121 99
0.338891321532263 -1.431741487701935 1.236291381957599 205 131 108
0.338891321532263 -1.431741487701935 1.247738524383132 206 133 98
0.338891321532263 -1.431741487701935 1.259185666808665 204 112 64
0.338891321532263 -1.431741487701935 1.270632809234199 168 55 18
0.338891321532263 -1.431741487701935 1.282079951659732 119 15 11
0.338891321532263 -1.431741487701935 1.293527094085265 82 13 5
0.338891321532263 -1.431741487701935 1.304974236510798 71 13 10
0.338891321532263 -1.431741487701935 1.316421378936332 104 16 12
0.338891321532263 -1.431741487701935 1.327868521361865 91 14 7
0.338891321532263 -1.431741487701935 1.339315663787398 73 10 16
0.338891321532263 -1.431741487701935 1.350762806212932 101 21 16
0.338891321532263 -1.431741487701935 1.362209948638465 114 20 16
0.338891321532263 -1.431741487701935 1.373657091063998 106 16 13
0.338891321532263 -1.431741487701935 1.385104233489532 102 17 16
0.338891321532263 -1.431741487701935 1.396551375915065 95 50 29
0.338891321532263 -1.420294345276402 0.480779981872399 34 8 6
0.338891321532263 -1.420294345276402 0.492227124297933 33 8 6
0.338891321532263 -1.420294345276402 0.503674266723466 33 9 3
0.338891321532263 -1.420294345276402 0.515121409148999 33 8 6
0.338891321532263 -1.420294345276402 0.526568551574533 40 7 15
0.338891321532263 -1.420294345276402 0.538015694000066 45 7 15
0.338891321532263 -1.420294345276402 0.549462836425599 38 8 7
0.338891321532263 -1.420294345276402 0.560909978851133 41 9 9
0.338891321532263 -1.420294345276402 0.572357121276666 41 8 8
0.338891321532263 -1.420294345276402 0.583804263702199 48 8 2
0.338891321532263 -1.420294345276402 0.595251406127733 44 8 2
0.338891321532263 -1.420294345276402 0.606698548553266 42 9 7
0.338891321532263 -1.420294345276402 0.618145690978799 44 8 8
0.338891321532263 -1.420294345276402 0.629592833404333 44 9 6
0.338891321532263 -1.420294345276402 0.641039975829866 47 9 9
0.338891321532263 -1.420294345276402 0.652487118255399 48 9 7
0.338891321532263 -1.420294345276402 0.663934260680933 49 9 7
0.338891321532263 -1.420294345276402 0.675381403106466 52 10 4
0.338891321532263 -1.420294345276402 0.686828545531999 50 8 8
0.338891321532263 -1.420294345276402 0.698275687957532 50 10 11
0.338891321532263 -1.420294345276402 0.709722830383066 49 9 5
0.338891321532263 -1.420294345276402 0.721169972808599 47 10 3
0.338891321532263 -1.420294345276402 0.732617115234132 47 10 3
0.338891321532263 -1.420294345276402 0.744064257659666 42 9 7
0.338891321532263 -1.420294345276402 0.755511400085199 46 10 7
0.338891321532263 -1.420294345276402 0.766958542510732 46 10 7
0.338891321532263 -1.420294345276402 0.778405684936266 46 9 9
0.338891321532263 -1.420294345276402 0.789852827361799 47 8 9
0.338891321532263 -1.420294345276402 0.801299969787332 43 10 14
0.338891321532263 -1.420294345276402 0.812747112212866 39 10 14
0.338891321532263 -1.420294345276402 0.824194254638399 42 8 8
0.338891321532263 -1.420294345276402 0.835641397063932 44 8 9
0.338891321532263 -1.420294345276402 0.847088539489466 46 8 10
0.338891321532263 -1.420294345276402 0.858535681914999 46 9 8
0.338891321532263 -1.420294345276402 0.869982824340532 47 7 7
0.338891321532263 -1.420294345276402 0.881429966766066 46 8 6
0.338891321532263 -1.420294345276402 0.892877109191599 45 7 7
0.338891321532263 -1.420294345276402 0.904324251617132 37 7 7
0.338891321532263 -1.420294345276402 0.915771394042666 36 8 4
0.338891321532263 -1.420294345276402 0.927218536468199 42 8 0
0.338891321532263 -1.420294345276402 0.938665678893732 44 9 9
0.338891321532263 -1.420294345276402 0.950112821319265 36 8 6
0.338891321532263 -1.420294345276402 0.961559963744799 36 8 6
0.338891321532263 -1.420294345276402 0.973007106170332 36 7 4
0.338891321532263 -1.420294345276402 0.984454248595865 34 7 7
0.338891321532263 -1.420294345276402 0.995901391021399 34 8 8
0.338891321532263 -1.420294345276402 1.007348533446932 34 7 6
0.338891321532263 -1.420294345276402 1.018795675872465 33 8 9
0.338891321532263 -1.420294345276402 1.030242818297999 40 9 8
0.338891321532263 -1.420294345276402 1.041689960723532 41 9 8
0.338891321532263 -1.420294345276402 1.053137103149065 58 10 9
0.338891321532263 -1.420294345276402 1.064584245574599 81 13 9
0.338891321532263 -1.420294345276402 1.076031388000132 89 12 10
0.338891321532263 -1.420294345276402 1.087478530425665 88 16 11
0.338891321532263 -1.420294345276402 1.098925672851199 79 14 14
0.338891321532263 -1.420294345276402 1.110372815276732 74 13 8
0.338891321532263 -1.420294345276402 1.121819957702265 71 12 9
0.338891321532263 -1.420294345276402 1.133267100127799 63 12 9
0.338891321532263 -1.420294345276402 1.144714242553332 63 9 8
0.338891321532263 -1.420294345276402 1.156161384978865 69 15 11
0.338891321532263 -1.420294345276402 1.167608527404399 102 24 19
0.338891321532263 -1.420294345276402 1.179055669829932 148 104 74
0.338891321532263 -1.420294345276402 1.190502812255465 210 153 114
0.338891321532263 -1.420294345276402 1.201949954680998 230 149 115
0.338891321532263 -1.420294345276402 1.213397097106532 223 141 116
0.338891321532263 -1.420294345276402 1.224844239532065 212 136 111
0.338891321532263 -1.420294345276402 1.236291381957599 211 136 101
0.338891321532263 -1.420294345276402 1.247738524383132 213 144 116
0.338891321532263 -1.420294345276402 1.259185666808665 219 145 110
0.338891321532263 -1.420294345276402 1.270632809234199 218 141 112
0.338891321532263 -1.420294345276402 1.282079951659732 188 84 95
0.338891321532263 -1.420294345276402 1.293527094085265 130 24 28
0.338891321532263 -1.420294345276402 1.304974236510798 84 15 10
0.338891321532263 -1.420294345276402 1.316421378936332 99 18 13
0.338891321532263 -1.420294345276402 1.327868521361865 99 14 10
0.338891321532263 -1.420294345276402 1.339315663787398 88 16 17
0.338891321532263 -1.420294345276402 1.350762806212932 83 14 10
0.338891321532263 -1.420294345276402 1.362209948638465 109 15 9
0.338891321532263 -1.420294345276402 1.373657091063998 116 21 17
0.338891321532263 -1.420294345276402 1.385104233489532 103 18 15
0.338891321532263 -1.420294345276402 1.396551375915065 89 18 13
0.338891321532263 -1.420294345276402 1.407998518340598 77 14 7
0.338891321532263 -1.408847202850869 0.469332839446866 30 8 6
0.338891321532263 -1.408847202850869 0.480779981872399 34 8 7
0.338891321532263 -1.408847202850869 0.492227124297933 33 8 7
0.338891321532263 -1.408847202850869 0.503674266723466 32 5 8
0.338891321532263 -1.408847202850869 0.515121409148999 32 9 5
0.338891321532263 -1.408847202850869 0.526568551574533 39 9 8
0.338891321532263 -1.408847202850869 0.538015694000066 39 8 8
